# .PCD v0.7 - Point Cloud Data file format
VERSION 0.7
FIELDS x y z
SIZE 4 4 4
TYPE F F F
COUNT 1 1 1
WIDTH 1576
HEIGHT 1
VIEWPOINT 0 0 0 1 0 0 0
POINTS 1576
DATA ascii
24.789438 -21.126007 5.084168
25.789473 -21.246317 5.1466546
26.127504 -21.31962 5.3536406
26.709173 -21.210133 5.2716651
27.316051 -21.310268 5.2948647
27.748856 -21.20335 5.2823925
28.258436 -21.108845 5.2479815
28.762648 -21.223516 5.2107759
29.234259 -21.200563 5.2754436
29.777569 -21.189611 5.2212172
30.309416 -21.18001 5.2778568
30.643915 -21.202484 5.2151008
31.362108 -21.173033 5.2133365
31.682755 -21.180685 5.2386589
32.273197 -21.159964 5.2788138
32.81802 -21.141129 5.1758299
33.145546 -21.149221 5.3048077
33.727226 -21.148853 5.3291707
34.166821 -21.138348 5.316402
34.558182 -21.117619 5.2476268
35.339085 -21.115993 5.2479405
35.614021 -21.115925 5.249795
36.226955 -21.146179 5.1417937
36.76152 -21.146069 5.1724319
37.211594 -21.115522 5.2770758
38.190937 -21.133495 5.2724714
38.887764 -21.139118 5.3180213
39.268311 -21.121542 5.350039
39.816555 -21.130653 5.3869643
40.236221 -21.111105 5.4028521
40.626129 -21.142403 5.3887439
41.227966 -21.174997 5.3984179
41.729919 -21.234446 5.3832984
42.411762 -21.234428 5.4544158
42.559238 -21.116158 5.0093012
43.168869 -21.116093 5.0542841
43.75087 -21.153778 5.0626845
44.270458 -21.15292 5.1076083
44.74754 -21.113426 5.1838474
45.25301 -21.143124 5.2069902
45.831902 -21.172859 5.245575
46.3326 -21.16103 5.3050299
46.766209 -21.18327 5.3464756
47.217419 -21.095091 5.2320809
47.644432 -21.135929 5.2957325
48.154041 -21.256718 5.4807949
48.60228 -21.018583 5.1545577
49.20488 -21.080009 5.1152821
49.635468 -21.070496 5.1558032
50.706074 -21.120104 5.1861262
51.411182 -21.120029 5.2656002
51.859486 -21.119978 5.3173141
52.747833 -21.119879 5.4222827
53.190517 -21.123545 5.4763212
53.749386 -21.005484 5.0271606
54.232059 -21.006174 5.0763221
54.872124 -21.007086 5.1431484
55.323952 -21.00773 5.1915808
55.709694 -21.008274 5.2336912
56.152008 -21.007872 5.2826576
57.398102 -21.00668 5.4252229
57.874817 -21.00622 5.4814873
72.978973 -21.054068 5.3452501
73.253288 -21.167175 5.2794614
73.668411 -21.4233 5.3629885
25.214783 -20.961449 5.0798149
25.577721 -20.867134 5.0887976
26.239662 -20.845528 5.1446447
26.748491 -20.933069 5.089004
27.218914 -20.873962 5.2490921
27.781527 -20.857569 5.305809
28.250549 -20.873089 5.3838921
28.722284 -20.909149 5.4292898
29.246159 -20.93552 5.39257
29.850893 -20.918844 5.2193408
30.275507 -20.90344 5.1853905
30.726471 -20.928602 5.1832323
31.265697 -20.923853 5.1698084
31.766342 -20.902241 5.1512794
32.295143 -20.912985 5.0692444
32.785553 -20.91633 5.0937262
33.272751 -20.952339 5.1724381
33.689209 -20.968479 5.1720634
34.346783 -20.919113 5.3657503
34.760662 -20.847189 5.2570877
35.270061 -20.90909 5.3498459
35.732067 -20.880793 5.3169055
36.191029 -20.913555 5.3123784
36.730797 -20.906076 5.2828665
37.267509 -20.923395 5.2915635
37.771694 -20.899549 5.2302561
38.267937 -20.910801 5.1875725
38.793575 -20.90379 5.1433859
39.214844 -20.91787 5.1414056
39.747086 -20.941395 5.1751742
40.241859 -20.911551 5.2032061
40.83289 -20.910099 5.2318039
41.267162 -20.831959 5.3949418
41.875717 -20.913891 5.3522038
42.336594 -20.905638 5.3924117
42.693378 -20.862291 5.3545661
43.247459 -20.899498 5.4137664
43.7202 -20.949333 5.4355745
44.188019 -20.928799 5.4515157
44.828609 -20.925735 5.4583511
45.250835 -20.89035 5.4586477
45.722145 -20.890457 5.4587326
46.328987 -20.805576 5.4263506
46.848606 -20.842905 5.3513093
47.263203 -20.889088 5.4459753
47.734028 -20.780191 5.3283286
48.362968 -20.799412 5.3395152
48.803379 -20.76515 5.1908989
49.272915 -20.866215 5.1497831
49.853161 -20.797544 5.1425219
50.228115 -20.784519 5.1591144
50.756054 -20.810867 5.1478653
51.286732 -20.780979 5.1551361
51.781319 -20.85726 5.3350735
52.265564 -20.836805 5.1800194
52.809021 -20.785183 5.1856127
53.266514 -20.749466 5.230267
53.707905 -20.769449 5.2394733
54.144917 -20.760336 5.2101278
54.77475 -20.789089 5.1641932
55.268188 -20.743217 5.1957469
55.727108 -20.731867 5.2266154
56.203133 -20.781847 5.1774287
56.725739 -20.750431 5.1533237
57.227787 -20.715101 5.1313996
57.753593 -20.749125 5.1491613
58.242599 -20.788385 5.1665363
58.695477 -20.797098 5.2434063
59.355904 -20.811344 5.2912445
59.766922 -20.773678 5.1940932
60.247879 -20.816931 5.2338362
60.651146 -20.788164 5.2152457
61.157524 -20.778767 5.2407784
61.784466 -20.835157 5.2424726
62.2449 -20.754641 5.2405329
62.665047 -20.77634 5.2615767
63.220722 -20.766102 5.2628603
63.783535 -20.76325 5.409853
64.197487 -20.708773 5.3656178
64.681541 -20.659414 5.3653979
65.361404 -20.689306 5.3535247
65.841644 -20.756756 5.2738714
66.203682 -20.695539 5.3428187
66.721916 -20.73209 5.1979666
67.231842 -20.72348 5.2570233
67.812454 -20.675861 5.188221
68.221786 -20.745232 5.25454
68.774956 -20.648054 5.1862359
69.276932 -20.629833 5.1820412
69.763382 -20.573736 5.138855
70.2118 -20.599701 5.1993642
70.749161 -20.59384 5.2276745
71.300377 -20.558784 5.1332436
71.77935 -20.602594 5.0990329
72.266945 -20.746571 5.1889901
72.779022 -20.926365 5.2213268
-1.7677028 -9.5523195 5.3670883
-18.52861 -9.2263079 5.0690632
-18.495609 -9.2275906 5.1010942
-2.1290288 -9.2920876 5.4256096
30.734285 -9.2259178 5.1756058
47.714752 -9.0728455 5.3911824
-19.134081 -8.7668123 5.1347642
-18.955704 -8.8941422 5.1702161
-1.6168401 -8.715086 5.3672194
15.463661 -8.6633806 5.1681938
15.59246 -8.6973515 5.1439762
30.742636 -8.6889915 5.0007286
31.183685 -8.8636971 5.3272495
31.805777 -8.6889019 5.3187766
32.690483 -8.5092821 5.4699326
47.927185 -8.8866062 5.2780895
48.346249 -8.8438692 5.1423416
48.505371 -8.5649462 5.0002556
64.884415 -8.7655449 5.2654967
65.070328 -8.624527 5.334455
98.972763 -8.5441074 5.414392
-19.614605 -8.0614748 5.2067747
-19.31736 -8.4934711 5.2128448
-18.419769 -8.3542309 5.4194751
-2.1708164 -8.3020592 5.300766
-1.9321692 -8.4822369 5.3679447
5.5147266 -8.0121527 5.3820825
14.821451 -8.110816 5.2559714
30.357763 -8.3369303 5.1542664
31.217274 -8.4506073 5.0658989
31.660841 -8.1615705 5.1621394
32.399334 -8.3080034 5.3343644
32.580723 -8.4795589 5.3839083
46.960686 -8.4803772 5.1514244
47.018055 -8.2990208 5.330482
48.360748 -8.0310478 5.0752659
48.805649 -8.3398905 5.1461458
49.410706 -8.1115875 5.1487451
49.686443 -8.3258457 5.1410718
65.221687 -8.4916859 5.4431581
65.820648 -8.3237066 5.2662559
82.27253 -8.3676481 5.3851228
82.588989 -8.1785555 5.4268179
99.209221 -8.383358 5.4430628
-20.238556 -7.5970178 5.3248453
-19.647728 -7.6629462 5.1610227
-19.377508 -7.6806326 5.142313
-12.251607 -7.6406784 5.1172433
-3.5937867 -7.978756 5.4691639
-3.3342953 -7.6187229 5.3828244
-2.5984168 -7.8439837 5.3599329
-2.3829408 -7.9058199 5.4793406
-1.3735163 -7.7265835 5.215549
5.5019264 -7.7592101 5.3700585
14.410852 -7.7494564 5.3148866
14.699065 -7.7823963 5.2508206
15.776888 -7.7858973 5.2681284
22.737186 -7.7474308 5.289813
30.834545 -7.9349871 5.2184086
31.737417 -7.7157555 5.2343802
33.138622 -7.6226597 5.2118921
40.107956 -7.5045676 5.0905261
47.794369 -7.8764706 5.4929667
48.379349 -7.7436533 5.0673456
48.773422 -7.737134 5.190793
49.134239 -7.7925434 5.1707697
49.901638 -7.5147243 5.0205011
50.036373 -7.5389943 5.4831896
64.14164 -7.8526058 5.1454043
65.825012 -7.7173595 5.3034935
82.80658 -7.5888205 5.4130411
98.297813 -7.6323819 5.2277055
-20.572712 -7.3239384 5.3497815
-20.442711 -7.2677507 5.3179741
-19.879253 -7.3247485 5.1683249
-12.317655 -7.3477097 5.2156568
-3.4925234 -7.1007648 5.1395416
-2.6815038 -7.2050028 5.2094574
-2.1599121 -7.1343479 5.2950611
-1.8702036 -7.3433323 5.2494564
14.455262 -7.4384532 5.2750125
14.658806 -7.1435862 5.2099409
30.71553 -7.0229783 5.1354403
31.669617 -7.1735582 5.2753286
32.240898 -7.3123627 5.3754826
40.119949 -7.3032036 5.1834421
48.363579 -7.4762731 5.0535192
48.674591 -7.2189384 5.2668295
49.896408 -7.2328677 5.4737015
50.192856 -7.2077684 5.4473677
56.406075 -7.4331369 5.3055954
64.465927 -7.4173117 5.1690755
64.813179 -7.4821029 5.2502685
65.790222 -7.200614 5.3363781
74.498329 -7.177711 5.0383472
81.445343 -7.2847309 5.2626891
82.884537 -7.2843962 5.4005699
-20.237005 -6.7869287 5.2697639
-4.4426684 -6.7587748 5.0277843
-3.6969306 -6.8658748 5.4161563
-3.1178486 -6.7568002 5.4684491
-2.7442963 -6.9842653 5.3314829
-1.988951 -6.8647079 5.2434025
13.634475 -6.7861366 5.3933015
14.338047 -6.9195294 5.2553139
14.504736 -6.9386921 5.2311249
30.879559 -6.6682606 5.0683999
31.37821 -6.8552341 5.4525628
31.809175 -6.7685237 5.2750883
32.077381 -6.7944741 5.0231133
47.700546 -6.6469359 5.3535547
48.3601 -6.7755709 5.1836925
48.716797 -6.8128028 5.1904807
49.02597 -6.8008981 5.2117071
56.416607 -6.7842522 5.1843705
65.789238 -6.7793527 5.3485503
66.067322 -6.5826492 5.3208427
82.863815 -6.7729239 5.3518848
91.539185 -6.6485271 5.4912786
-19.800774 -6.2415352 5.1055603
-4.1726089 -6.1229033 5.4837952
-3.3317051 -6.38767 5.3134646
-2.6988266 -6.3582888 5.1512556
13.868041 -6.2878304 5.3135104
30.887754 -6.2864985 5.1888232
31.370941 -6.2219725 5.1179776
31.510214 -6.4283752 5.0821514
32.302788 -6.3878636 5.0233145
47.102531 -6.3508277 5.0885177
47.900898 -6.2423439 5.3153305
48.964214 -6.3276057 5.3144226
65.792389 -6.4995174 5.3704085
66.063141 -6.3421378 5.3422389
83.149109 -6.3054695 5.3688998
100.28509 -6.0364523 5.4735246
-19.676895 -5.9203186 5.0708108
-4.2595801 -5.6688843 5.4806023
-3.3645296 -5.9434166 5.4694929
-2.8053622 -5.9962153 5.2847185
14.3833 -5.7251482 5.1673989
48.141781 -5.8492455 5.197504
65.523956 -5.7259464 5.2450142
100.23535 -5.7663617 5.4485536
-2.6351297 -5.3806267 5.2222047
14.529062 -5.2677021 5.1328135
31.516525 -5.2773566 5.2016435
48.566338 -5.2880759 5.0590277
50.484043 7.8564582 5.34936
47.197098 8.3953066 5.3849688
49.327503 8.1216526 5.1631045
50.260338 8.1819086 5.2678909
45.304298 8.8868198 5.0288224
46.982029 8.778429 5.3623915
47.079979 8.6972198 5.3946896
47.581738 8.9016972 5.3365784
48.942429 8.9596949 5.1709604
49.703018 8.8330917 5.2425175
50.117558 8.5900536 5.2929378
44.39365 9.1046753 5.4612989
46.846428 9.1933975 5.3616285
47.165882 9.3531771 5.3708959
47.517418 9.1366758 5.1904507
48.441795 9.2373276 5.1095953
48.612171 9.1157627 5.1276374
49.33194 9.4386511 5.1277752
49.784073 9.2520142 5.1928596
51.864017 9.260354 5.3038449
45.890766 9.6974764 5.2565093
47.244667 9.8400841 5.2086754
48.551064 9.6495667 5.1693134
49.247879 9.8120165 5.146769
49.803452 9.677722 5.0491819
50.076283 9.7789049 5.2161064
51.817768 9.6731358 5.3454089
60.513329 9.6118126 5.2508054
45.329693 10.42005 5.1471958
45.943348 10.3606 5.2642012
46.137497 10.199442 5.1716924
47.163334 10.049423 5.2155013
48.442421 10.314582 5.218194
48.508492 10.135587 5.2110262
49.968899 10.239477 5.0613713
50.050533 10.045627 5.2392154
51.763489 10.212261 5.4008832
59.771862 10.189074 5.1499653
60.219765 10.134079 5.2334499
62.025536 10.430244 5.0547118
43.893196 10.740742 5.490346
44.076504 10.515437 5.0505948
45.141361 10.955346 5.1541781
46.164864 10.622559 5.0628643
48.316143 10.761878 5.1805749
50.195137 10.679173 5.0499449
51.720543 10.633136 5.4460759
52.082985 10.832274 5.37813
59.894981 10.678844 5.2889962
43.652992 11.383183 5.4994054
44.696793 11.431818 5.1090984
45.724754 11.311475 5.4550581
48.288269 11.241725 5.152153
48.582138 11.086734 5.1438079
59.682529 11.327439 5.3118644
60.237549 11.280843 5.3665123
44.839211 11.784538 5.2625093
45.992374 11.957417 5.2148867
46.706181 11.806803 5.3477826
47.445435 11.970431 5.0572376
47.730209 11.945551 5.276722
48.149017 11.801036 5.2696042
48.604271 11.746857 5.2369261
50.402164 11.732808 5.2895298
57.606796 11.71035 5.4309783
44.222984 12.467811 5.0094357
44.764069 12.389534 5.1474152
45.134472 12.251225 5.1405292
48.332352 12.48982 5.2635374
48.5881 12.385877 5.2878766
49.955776 12.205258 5.2868953
50.162617 12.331933 5.2975364
57.28355 12.109599 5.4132252
48.288326 12.517088 5.2582183
51.452805 12.903992 5.0191202
51.541649 12.987624 5.1630106
61.963867 12.511519 5.3206625
44.002407 13.43032 5.4550619
50.227783 13.341159 5.4020972
51.471142 13.384099 5.2160425
51.52261 13.094026 5.1771636
58.146076 13.245967 5.0489717
58.650856 13.248943 5.3279057
51.302383 13.780033 5.1458807
51.616287 13.633222 5.0670738
58.741898 13.654454 5.398653
44.181999 14.324497 5.0254006
45.25771 14.329373 5.1854415
48.280907 14.425502 5.0661626
51.31641 14.042234 5.2168026
51.627159 14.200411 5.1702251
59.479652 14.333238 5.3707647
59.502384 14.31407 5.3727603
44.184822 14.571001 5.0603275
44.944946 14.626995 5.1794224
45.393223 14.596695 5.008121
45.724438 14.595706 5.0671377
46.167271 14.621339 5.1510115
48.13464 14.647143 5.0016551
51.935669 14.548084 5.15553
52.243698 14.765987 5.1226535
59.140247 14.936036 5.3720899
59.515182 14.732383 5.4141092
43.960068 15.387379 5.1442924
44.3829 15.408803 5.1939898
44.651001 15.372507 5.0058808
45.138836 15.412238 5.0958443
45.751556 15.380548 5.2060409
48.558022 15.374814 5.2111902
52.741119 15.231565 5.0929966
53.186333 15.448848 5.0362949
58.783913 15.128166 5.3328466
59.379395 15.481228 5.1872101
59.734329 15.319099 5.2492232
44.266212 15.838225 5.1831312
44.701759 15.748869 5.0780096
48.406918 15.78698 5.3484612
59.321095 15.586163 5.2556643
60.567841 15.524302 5.3986883
48.329727 16.204611 5.416729
50.650562 16.321701 5.3148484
51.518253 16.339029 5.466682
52.131969 16.294769 5.1625285
52.576881 16.297403 5.3137865
43.607521 16.925919 5.3234062
44.309551 16.606337 5.1623292
44.653881 16.624481 5.1262097
50.486492 16.512642 5.3193398
51.831524 16.904093 5.0468516
52.102837 16.679371 5.1498184
44.360527 17.286306 5.0614905
49.860165 17.240261 5.3425879
50.474339 17.173172 5.3825321
50.515175 17.0144 5.3498168
51.648579 17.397669 5.2775011
10.203712 17.956255 5.0968604
10.707473 17.784674 5.0100956
15.231679 17.911543 5.1140232
15.735828 17.749769 5.0324554
44.089306 17.907356 5.1262326
44.587582 17.891088 5.1661835
49.61784 17.61458 5.2014289
4.8991513 18.069199 5.1135855
6.8707747 18.360014 5.0100217
8.9325733 18.397566 5.3202233
9.2599306 18.283005 5.2622213
10.016937 18.020363 5.129292
11.843902 18.453629 5.0172958
13.724697 18.418667 5.3703184
14.166046 18.266554 5.2933574
14.813358 18.048773 5.1832938
15.030204 18.491066 5.0235591
16.223766 18.496733 5.0105915
44.187145 18.105579 5.414423
46.492165 18.456909 5.1474338
49.765427 18.358555 5.1546707
4.3221154 18.977852 5.1409273
4.6461234 18.861559 5.0494485
5.8703146 18.699463 5.1903367
7.1296587 18.800755 5.1156054
7.974277 18.737375 5.4923787
8.4088478 18.582584 5.4139423
8.5669928 18.526525 5.3855424
9.3074503 18.78306 5.1139703
9.7696218 18.895407 5.1108408
10.170818 18.985611 5.113781
10.761292 18.752354 5.1239252
13.314471 18.593519 5.3124824
13.876398 18.88583 5.200963
14.264109 18.905611 5.0929742
14.651818 18.722811 5.0555477
15.500441 18.770931 5.1553149
16.297968 18.723772 5.0770235
48.384136 18.724081 5.1341081
48.776138 18.670406 5.1674895
49.247902 18.605824 5.2101192
49.949509 18.84424 5.0770092
50.116058 18.617493 5.1319876
53.336407 18.728498 5.2839704
4.3397722 19.013231 5.0975637
4.8223572 19.060637 5.2022595
5.188086 19.143696 5.2303872
5.7922173 19.329359 5.2821908
6.3645735 19.45089 5.3396749
8.9039059 19.291351 5.4733901
9.4160805 19.410387 5.4127502
9.8237524 19.223724 5.3144283
10.351648 19.087086 5.1851635
10.710849 19.245464 5.2976675
11.275482 19.444221 5.3013258
11.659631 19.469271 5.3522511
12.955997 19.349543 5.4765859
13.30968 19.291031 5.3653355
13.743937 19.239391 5.3638954
14.171277 19.020744 5.2104597
14.751071 19.13685 5.2463946
15.365619 19.242329 5.2229013
15.827662 19.199375 5.1868863
16.290527 19.161053 5.1455522
16.788004 19.177513 5.1461444
17.116482 19.231853 5.215107
45.460667 19.407753 5.4773469
45.500633 19.365572 5.4781709
46.808422 19.001268 5.1599545
48.413414 19.380136 5.252923
48.653538 19.430958 5.2268133
4.7566428 19.939514 5.2219114
5.1391168 19.720419 5.2631612
6.1853952 19.511831 5.4845915
6.7761307 19.586092 5.4057999
7.0787196 19.689575 5.4564977
11.825018 19.592299 5.3935556
12.262965 19.67618 5.4539571
14.492995 19.990252 5.1018515
15.178334 19.857018 5.0457172
15.74411 19.684299 5.177702
16.433945 19.527897 5.3431277
16.782656 19.731878 5.1674757
17.219984 19.613653 5.4405284
43.173428 19.854603 5.4998307
43.932205 19.929333 5.2341042
44.158276 19.95709 5.2393813
45.148624 19.772688 5.2678318
46.278419 19.541029 5.3113284
49.38921 19.996334 5.0399733
4.3358641 20.125547 5.468184
6.9721651 20.361065 5.1765199
7.3817558 20.211859 5.1084576
7.7775688 20.070181 5.0439196
12.445466 20.491959 5.3209815
12.751215 20.407932 5.2837415
13.19936 20.290678 5.2320895
13.926175 20.114275 5.1551394
14.210046 20.050674 5.1277132
16.443239 20.152483 5.4748659
16.825909 20.263636 5.1788168
43.88826 20.131878 5.1118722
44.27 20.181133 5.1555414
44.756878 20.144217 5.268949
49.382244 20.404993 5.1269889
6.1130114 20.681984 5.3232384
6.5508785 20.517124 5.2478142
11.274903 20.840727 5.4769874
12.135138 20.580288 5.3602943
16.843739 20.772329 5.2581625
49.379868 20.704769 5.1156597
4.8412399 21.197811 5.1723638
5.1992264 21.034117 5.4846411
16.459925 21.263893 5.1091208
16.850458 21.287199 5.3500113
40.460796 21.477076 5.0276995
4.4384766 21.912579 5.3573155
4.7029953 21.87763 5.3933735
16.460917 21.826426 5.3889351
16.869484 21.959381 5.4195342
31.404671 21.587643 5.0066261
31.693037 21.606123 5.0243316
32.36488 21.653162 5.0686531
32.826332 21.688759 5.1016388
33.354485 21.732203 5.1414843
34.378929 21.825661 5.2258863
34.729172 21.860203 5.2567463
35.444267 21.934654 5.3227997
35.842861 21.978361 5.3613281
40.906559 21.535492 5.0781589
41.279236 21.585224 5.1210442
41.828667 21.65991 5.1853223
16.472963 22.138807 5.2763643
16.838316 22.259565 5.3774328
17.194326 22.388544 5.4602075
36.146793 22.01273 5.3915091
36.801224 22.089857 5.4589162
16.294733 22.540773 5.0779929
16.924023 22.647835 5.2828379
17.20573 22.623989 5.3706932
28.914837 22.902058 5.1096716
29.118225 22.771412 5.0187292
29.746769 22.8248 5.042079
30.352072 22.983063 5.1596889
30.859612 22.90303 5.0983124
31.159374 22.857338 5.063241
31.648489 22.785255 5.0078664
32.24968 22.859928 5.0113926
32.761349 22.942894 5.0722723
33.380238 22.855024 5.0979543
33.833412 22.840097 5.0567622
34.230797 22.981026 5.1461306
34.846687 22.872503 5.0631576
35.175926 22.81636 5.0202026
37.205597 22.714407 5.0195894
37.701519 22.863712 5.1181884
38.263138 22.833107 5.0742521
38.723175 22.901859 5.1226425
39.018379 22.972713 5.2084498
41.770214 22.993477 5.133841
16.884165 23.157331 5.0417037
17.218519 23.298368 5.0325785
28.234446 23.461592 5.0756927
28.797672 23.404858 5.2841964
29.248602 23.277027 5.4167824
29.776428 23.134935 5.3165841
30.09392 23.113577 5.2996683
30.855139 23.210905 5.4118409
31.306255 23.308628 5.4560366
31.738482 23.326721 5.4612198
32.218941 23.290577 5.3893356
32.75853 23.26696 5.3742828
33.285347 23.237343 5.3726306
33.725323 23.170042 5.3100872
34.275524 23.197718 5.3055182
34.740807 23.351364 5.4252415
35.279491 23.335495 5.4221582
35.776791 23.3423 5.4385071
36.242634 23.314571 5.4092674
36.762413 23.230946 5.3480854
37.246914 23.23494 5.3492208
37.786121 23.282936 5.3820691
38.285984 23.271358 5.3564205
38.813 23.220018 5.3123469
39.219234 23.151926 5.265337
39.682194 23.139727 5.2770925
40.150051 23.169609 5.2767601
40.76506 23.151726 5.250092
41.283501 23.254673 5.3389897
41.711731 23.149649 5.2515221
16.898174 23.586121 5.0026503
28.795383 23.836712 5.3573523
29.22094 23.663197 5.2796011
29.725882 23.626879 5.223701
30.775711 23.756212 5.3373947
31.318954 23.826763 5.3988767
31.734383 23.882519 5.447228
33.947666 23.658211 5.3125935
34.530006 23.780781 5.4029694
35.968254 23.524158 5.4999471
82.574661 24.07308 5.008955
83.222473 24.272997 5.1070609
83.670891 24.36882 5.1348157
84.122971 24.430557 5.1265974
41.479286 24.835293 5.1928544
58.913097 24.893452 5.0821624
59.176979 24.869539 5.0492353
63.85318 24.987831 5.1857691
64.270401 24.96242 5.145155
65.284462 24.905573 5.0527072
65.874229 24.876287 5.0037532
67.918266 24.939226 5.0078449
68.223175 24.966002 5.0358486
68.555138 24.995886 5.0672665
79.495796 24.643452 5.2657452
79.926346 24.78986 5.3377819
80.299438 24.918732 5.4012251
84.336853 24.632301 5.2837133
84.805481 24.747389 5.3210912
85.350143 24.974411 5.4522214
89.845261 24.688992 5.2767539
90.242546 24.825336 5.3439546
41.819523 25.224812 5.0446882
43.604595 25.269447 5.0058823
44.670334 25.435219 5.1114655
45.113125 25.415487 5.1308894
45.829479 25.305651 5.0656137
46.212452 25.256044 5.026072
47.355118 25.475962 5.1754713
47.97826 25.377657 5.1111221
48.283844 25.332161 5.0812588
48.884113 25.248156 5.0259514
49.179249 25.209539 5.0004354
59.318123 25.07173 5.2497673
59.750664 25.105509 5.3309088
60.27898 25.126877 5.3693032
60.73634 25.16173 5.4125218
61.287891 25.196831 5.4767637
61.536652 25.189816 5.4647126
62.300331 25.119616 5.3808146
62.843769 25.054836 5.2910604
63.297451 25.092348 5.3228974
63.854565 25.143948 5.3706522
64.03434 25.139635 5.3616099
65.33979 25.118788 5.309267
65.74028 25.116096 5.2979259
66.447617 25.115274 5.2828898
66.803467 25.116989 5.2780337
67.243462 25.120903 5.2743106
67.745995 25.128159 5.2736077
68.381477 25.218084 5.3825383
68.803726 25.152548 5.2803245
69.258102 25.177191 5.2899728
69.538261 25.113979 5.170908
80.756577 25.078964 5.4801526
41.493187 25.614498 5.3533669
43.786442 25.542517 5.1825581
44.026699 25.511616 5.1621528
47.03878 25.528618 5.209857
59.373177 25.762304 5.3558688
29.610495 26.394907 5.2530999
59.43203 26.059782 5.4109216
79.966896 26.33222 5.0174708
29.061111 26.80155 5.2685599
41.793884 26.984585 5.4944429
79.874535 26.903151 5.2992988
28.992661 27.385159 5.1157107
29.281937 27.364344 5.1239505
29.680676 27.165348 5.1037292
42.153145 27.050365 5.4989204
59.052616 27.128551 5.0583105
79.903 27.129509 5.1502666
-8.6620512 28.154934 5.0876474
-8.1813726 28.147638 5.0612216
2.7591634 28.198441 5.4568272
3.0732508 28.227423 5.4746156
3.9634738 28.232607 5.482172
4.0910382 28.363523 5.4835353
4.6459794 28.093056 5.4701152
59.31205 28.367573 5.3008118
2.9753125 28.964111 5.0495591
5.0356054 28.525625 5.0235729
59.392494 28.751438 5.3760099
3.6952002 29.058237 5.0800314
54.04475 32.256859 5.002357
4.0976238 -28.847336 5.617085
4.0746217 -28.153671 5.7816319
4.0407066 -26.82399 5.5260439
23.099972 -26.450043 5.6681123
3.9872959 -25.585468 5.7520514
23.8029 -25.111679 5.6514335
3.8936367 -24.757826 5.8051505
3.8596714 -24.166607 5.7461386
23.016111 -24.483217 5.7832294
23.628319 -24.152191 5.5302052
3.7335107 -23.500326 5.8048639
23.096601 -23.501244 5.5465298
3.7301495 -23.303907 5.7676263
23.962849 -23.422634 5.9763341
3.4010627 -22.689323 5.7524786
23.312685 -22.838516 5.9225445
24.25181 -22.888561 5.8663926
24.535425 -22.50139 5.7786355
74.853409 -22.7558 5.5744591
1.8287567 -22.037338 5.9055929
2.3061907 -22.133244 5.9151049
2.8110578 -22.301382 5.8305826
3.0964801 -22.445578 5.8670211
23.625 -22.275814 5.7928643
24.785334 -22.129679 5.7168751
74.572067 -22.262024 5.6794138
-19.668449 -21.768879 5.8051238
-18.775181 -21.820826 5.6931286
-18.299746 -21.82638 5.6602859
-17.866058 -21.82786 5.5892339
-17.439346 -21.829035 5.5299249
-16.202875 -21.832739 5.9873581
-15.773117 -21.83256 5.9573312
-15.129787 -21.834747 5.8619671
-14.746521 -21.834549 5.8274117
-14.221817 -21.835642 5.756536
-13.744213 -21.836992 5.6902165
-13.199745 -21.837421 5.6309114
-12.753462 -21.837471 5.5846825
-8.6756039 -21.622839 5.8185844
-8.2764006 -21.671457 5.7258143
-7.7976675 -21.76861 5.5906653
-7.3463383 -21.695446 5.5904627
-6.9343791 -21.622408 5.5902638
-6.3164358 -21.697206 5.7601433
-5.7496324 -21.769684 5.940187
-5.2099724 -21.769285 5.8788056
-4.8307991 -21.710375 5.8884172
-4.307723 -21.695381 5.8413453
-3.7671123 -21.731649 5.7523079
-3.2835169 -21.763649 5.67942
-2.7031603 -21.763918 5.6262221
-2.2955084 -21.690908 5.6203141
-1.7611006 -21.760469 5.636785
-1.2088891 -21.781193 5.7612696
-0.72933549 -21.816807 5.8333979
-0.30783418 -21.805098 5.8665047
0.16710754 -21.816311 5.8744836
0.71765006 -21.814035 5.9002962
1.2349765 -21.861849 5.884264
1.7695799 -21.896545 5.8844681
2.1166503 -21.939995 5.8665061
23.816776 -21.986225 5.7293415
24.153463 -21.61994 5.657536
25.163488 -21.785183 5.6211495
25.52948 -21.508099 5.5570121
34.927036 -21.831503 5.5104833
35.217323 -21.83194 5.5457277
35.713814 -21.832703 5.6079865
36.235512 -21.833546 5.6758137
36.82666 -21.834538 5.7557716
37.353546 -21.82547 5.8273101
37.648319 -21.826584 5.8698101
38.209961 -21.828726 5.9528499
38.96302 -21.824505 5.5041156
39.377892 -21.826065 5.5635791
39.736179 -21.827421 5.61586
40.819725 -21.834753 5.7795448
73.905296 -21.565268 5.886529
74.225349 -21.853678 5.8310266
-1.8013301 -21.338161 5.8330526
-1.361992 -21.330919 5.7795181
-0.54515207 -21.332941 5.6849298
0.61251664 -21.414833 5.5701103
1.3348652 -21.492367 5.5068855
24.427988 -21.364635 5.6119318
24.751255 -21.143723 5.5811701
25.725906 -21.333433 5.7157855
26.263777 -21.21163 5.6658769
26.731745 -21.182514 5.6581616
27.26301 -21.197741 5.725666
27.72377 -21.121159 5.7089128
28.257652 -21.23049 5.729403
28.70664 -21.187773 5.7713876
29.243109 -21.231184 5.7693996
29.731537 -21.242561 5.7091813
30.270512 -21.197502 5.7427635
30.714352 -21.202902 5.7664881
31.189661 -21.160702 5.6280456
31.764404 -21.167501 5.7486854
32.329258 -21.153429 5.8118019
32.808689 -21.145897 5.8048515
33.352638 -21.180574 5.9723215
33.771271 -21.118198 5.778389
34.166603 -21.117918 5.7743301
34.561905 -21.117638 5.7719755
35.25135 -21.161777 5.6052942
35.785522 -21.14629 5.6934338
36.231102 -21.146194 5.7167745
36.718075 -21.135813 5.7591033
37.39101 -21.115091 5.8114495
37.723267 -21.136072 5.8174887
38.263237 -21.143208 5.8643494
38.783997 -21.127748 5.8947558
39.21571 -21.108023 5.8860908
39.816689 -21.109097 5.9199624
40.251091 -21.109869 5.9468088
40.800598 -21.114847 5.9849319
41.145603 -21.234297 5.9172516
41.885513 -21.155077 5.6723771
42.28627 -21.11544 5.5423193
42.789528 -21.145145 5.5609341
43.258011 -21.174868 5.5832195
43.641552 -21.193682 5.6127858
44.330788 -21.159916 5.6986156
44.738503 -21.171871 5.7375336
45.235046 -21.159988 5.7949896
45.5569 -21.231583 5.8180261
46.328144 -21.142178 5.9222574
46.830788 -21.194389 5.9853144
47.203506 -21.014874 5.6103983
47.811596 -21.016336 5.657773
48.229237 -21.137814 5.5379491
48.674305 -21.138382 5.6268435
49.250286 -21.110229 5.6875534
49.659058 -21.069855 5.7618508
51.220612 -21.11898 5.8936577
51.828697 -21.1189 5.9722438
52.95834 -21.002773 5.559556
53.375092 -21.003359 5.605319
53.694298 -21.064056 5.589457
54.527283 -21.004978 5.737143
56.130589 -21.006485 5.9326057
72.982567 -21.051498 5.9343357
73.239723 -21.152136 5.8462925
73.597168 -21.337976 5.8292956
25.211956 -20.955254 5.5731301
25.574865 -20.861074 5.5829601
26.191669 -20.871893 5.6757164
26.724894 -20.88361 5.7099462
27.205265 -20.904291 5.6515775
27.718296 -20.892033 5.6678824
28.294636 -20.885513 5.7064857
28.824764 -20.92119 5.9649773
29.33046 -20.992992 5.9272146
29.802059 -20.918795 5.7710867
30.294418 -20.885681 5.7985497
30.747349 -20.913279 5.7638865
31.237574 -20.912031 5.7705903
31.718359 -20.915497 5.7478881
32.247429 -20.916508 5.7039566
32.76688 -20.910574 5.7242866
33.267128 -20.93486 5.5765429
33.722065 -20.909407 5.5266943
34.189526 -20.856169 5.5826182
34.852139 -20.871653 5.7825928
35.284405 -20.926531 5.9286098
35.72192 -20.8904 5.886539
36.253502 -20.908173 5.8824506
36.756905 -20.895548 5.8915391
37.295391 -20.92248 5.8163896
37.784584 -20.873028 5.7557292
38.284801 -20.924511 5.7675056
38.769142 -20.880804 5.6720347
39.237373 -20.897099 5.6729755
39.726711 -20.923058 5.6991696
40.293262 -20.914499 5.7671165
40.767128 -20.933167 5.6555295
41.2579 -20.910217 5.7909989
41.731995 -20.900396 5.7366567
42.236988 -20.964874 5.7653031
42.711319 -20.849703 5.8414478
43.107765 -20.830772 5.8321357
43.664185 -20.903337 5.8391318
44.459236 -20.991169 5.9809446
44.789055 -20.847637 5.8084621
45.112755 -20.901642 5.9997568
45.84893 -20.992926 5.5127902
46.347622 -20.992949 5.5449138
46.820648 -20.82625 5.8188262
47.264355 -20.796509 5.9976597
47.752415 -20.835014 5.7774515
48.32692 -20.818188 5.7885542
48.744366 -20.80687 5.7027321
49.21817 -20.838152 5.7771583
49.753273 -20.812098 5.7363844
50.255489 -20.826063 5.6870365
50.80302 -20.805542 5.6933084
51.269669 -20.750267 5.7220106
51.720428 -20.726284 5.6935616
52.259212 -20.758623 5.6487536
52.773926 -20.810856 5.7223425
53.295288 -20.790722 5.735671
53.727764 -20.793894 5.7507205
54.246937 -20.765835 5.7897544
54.787373 -20.742092 5.7866654
55.24448 -20.788771 5.7524567
55.684349 -20.723055 5.8001895
56.234337 -20.777239 5.7370052
56.796749 -20.761145 5.7440338
57.265678 -20.750307 5.7372046
57.70179 -20.727285 5.7256761
58.203373 -20.745436 5.7122989
58.7869 -20.733397 5.6606379
59.339027 -20.723957 5.6549468
59.723572 -20.773392 5.7641845
60.274086 -20.800032 5.7411375
60.700668 -20.832134 5.776001
61.133484 -20.791048 5.7798476
61.805538 -20.811543 5.7512312
62.315479 -20.832066 5.7722311
62.700413 -20.807226 5.7996907
63.221512 -20.742458 5.7047291
63.779755 -20.771622 5.7550855
64.187103 -20.774111 5.8361082
64.726135 -20.783621 5.7437911
65.191925 -20.789772 5.7755814
65.669991 -20.725714 5.7622232
66.244812 -20.714136 5.8766503
66.794327 -20.715071 5.8138175
67.18222 -20.744125 5.8430476
67.774178 -20.710093 5.8003502
68.237221 -20.699392 5.7774234
68.796135 -20.68589 5.794693
69.258675 -20.647238 5.7823763
69.731682 -20.639498 5.7349172
70.112999 -20.590118 5.6502247
70.720154 -20.552784 5.7031183
71.269142 -20.575102 5.6444054
71.780769 -20.656347 5.6800718
72.21682 -20.716166 5.7260938
72.714859 -20.908514 5.8172631
91.392586 -9.6797047 5.8823414
-18.651007 -9.1388197 5.6180387
-2.8523188 -9.1072655 5.5570211
30.76671 -9.2397661 5.7814722
31.846794 -9.3252115 5.9721947
32.00996 -9.0189686 5.9829421
47.749596 -9.3632746 5.5646343
48.705688 -9.1140976 5.8626413
91.440132 -9.4435635 5.8578358
-19.817028 -8.6831532 5.8610091
-18.978079 -8.9015284 5.680933
-2.9540405 -8.8044319 5.5657959
-2.1554363 -8.5380278 5.9520063
-1.7052574 -8.6677647 5.8680539
-1.4076185 -8.8835449 5.8243084
15.445534 -8.6740971 5.6784239
22.761072 -8.895071 5.8103209
31.611269 -8.8847599 5.8932896
32.755203 -8.5187101 5.8270726
47.884483 -8.8984232 5.7730389
48.468193 -8.5944138 5.508214
48.915562 -8.951623 5.9802351
65.000755 -8.7547531 5.7962961
74.502838 -8.6582718 5.7951436
-19.611652 -8.0717239 5.7516093
-19.113771 -8.0827675 5.6308961
-3.2931137 -8.1709061 5.9590321
-2.7028008 -8.3368101 5.7442355
-2.3989973 -8.398963 5.7680759
14.420515 -8.3183384 5.8926139
14.718053 -8.1856174 5.8921022
15.191099 -8.4323406 5.7630482
31.36286 -8.1429672 5.834383
32.423294 -8.2965517 5.6876659
40.058449 -8.4635868 5.811811
46.829563 -8.2536001 5.8150325
48.325336 -8.1731167 5.6336508
48.874729 -8.3205833 5.7220306
49.391479 -8.1242762 5.7091613
49.639091 -8.3192348 5.6833973
65.807526 -8.2418365 5.5413513
91.535011 -8.1893539 5.6656051
99.702095 -8.0854683 5.5067611
-19.761488 -7.719934 5.7892971
-19.285151 -7.6349134 5.7134399
-18.807222 -7.801795 5.6210718
-12.27088 -7.8612771 5.9520726
-3.4000919 -7.6332092 5.9423056
-2.7402124 -7.8179479 5.765152
-2.0635068 -7.8148141 5.8741293
-1.9382473 -7.8226795 5.8480453
14.513886 -7.6172624 5.8598075
15.253799 -7.6516299 5.6962867
22.772179 -7.7444625 5.7351723
31.415344 -7.7219753 5.8485985
31.798231 -7.8378015 5.7447734
33.231113 -7.5609813 5.6637235
47.235111 -7.5995789 5.5411539
48.400993 -7.7072906 5.7040615
48.68306 -7.6421466 5.7924213
49.029049 -7.6626725 5.5385942
56.408474 -7.9795384 5.5700173
64.608345 -7.590384 5.7514067
65.233391 -7.6688423 5.9079456
91.530006 -7.8080368 5.6311288
-20.249187 -7.2662001 5.8017187
-19.696253 -7.4375081 5.7900734
-12.281534 -7.295455 5.8834734
-3.6058958 -7.1239824 5.7961931
-2.7778361 -7.1095486 5.9747038
-2.1850436 -7.4086614 5.869072
14.243317 -7.1396408 5.865593
14.898447 -7.1872196 5.7149706
22.783159 -7.1374836 5.647408
31.440821 -7.2761536 5.7226958
32.421597 -7.1453104 5.7877874
32.601501 -7.2486234 5.9360743
40.132919 -7.031898 5.8896737
47.455338 -7.0157418 5.913909
48.31205 -7.4433699 5.5968523
48.748405 -7.3646531 5.7910776
49.383068 -7.244246 5.6192846
49.603779 -7.2850614 5.5507007
56.394253 -7.3506832 5.5123701
64.331894 -7.4173856 5.6144633
64.523491 -7.4977121 5.6053715
65.621765 -7.1295438 5.9426079
66.02121 -7.3180351 5.8951149
74.508034 -7.1790671 5.6719956
81.347008 -7.2257447 5.672585
82.350204 -7.0347791 5.8685179
82.545616 -7.4617167 5.9533262
91.531891 -7.0962257 5.5275002
-20.406012 -6.7755017 5.8145328
-3.5406723 -6.8340535 5.6188502
-3.1173575 -6.7217102 5.802773
-2.0105579 -6.8638449 5.9791756
13.847889 -6.6785331 5.9207363
14.300288 -6.9529676 5.8375821
31.202339 -6.6477261 5.604763
31.841717 -6.6898794 5.8336763
39.287941 -6.8752708 5.7948737
40.1269 -6.7806802 5.7325039
48.284874 -6.6722689 5.7907987
48.547905 -6.9426765 5.7654104
49.088558 -6.8116751 5.6434259
65.728874 -6.7932143 5.8885593
66.006851 -6.6920509 5.9911728
91.537567 -6.7361555 5.5181766
-20.480661 -6.4525032 5.7787666
-4.2088761 -6.4149361 5.5087485
-3.3703969 -6.4763718 5.5333285
-2.8730028 -6.1231799 5.7003822
13.745814 -6.2244973 5.85779
30.840693 -6.3224249 5.6287289
31.893345 -6.2970266 5.8582048
32.465092 -6.0572004 5.8513293
47.94035 -6.182961 5.8224697
48.044945 -6.4455314 5.8291893
48.902042 -6.3080292 5.7878265
65.994019 -6.2825465 5.9175897
67.132362 -6.1954618 5.6417141
74.534637 -6.2866964 5.6478491
83.077515 -6.2488275 5.9528461
84.180588 -6.1223135 5.5588303
13.690784 -5.856029 5.9542193
30.868584 -5.7237959 5.6019621
47.86269 -5.7066836 5.7969017
66.051491 -5.9096804 5.9284601
30.824188 -5.4227858 5.5890551
56.330551 -5.2977028 5.8670988
56.305851 -4.9909849 5.8670287
91.432449 -4.5118074 5.9095764
91.582932 -4.882833 5.9712644
91.471077 -4.4222412 5.9117055
49.750595 7.7186298 5.8278675
46.577576 8.3320932 5.8240781
47.239986 8.0834637 5.9392457
49.346439 8.1258135 5.7851057
49.713406 8.4490957 5.6459594
45.187279 8.635479 5.5632691
46.431187 8.8271484 5.8485589
46.555969 8.5995417 5.8584056
48.908714 8.9726992 5.5036273
49.08691 8.9991207 5.5490675
49.61377 8.8123779 5.6571341
50.853386 8.9413805 5.52596
45.405708 9.2775688 5.6697607
45.543266 9.1923933 5.710772
46.360481 9.1980171 5.8572292
47.673805 9.3012037 5.5724006
51.697227 9.1644106 5.8570347
60.267948 9.3433056 5.7736025
44.256237 9.697525 5.7810383
44.716896 9.6097298 5.5562263
45.438564 9.62076 5.6383772
45.697357 9.7983036 5.691884
47.420021 9.8647213 5.6295147
47.536869 9.6492786 5.6676464
48.356022 9.6873693 5.7528057
51.64933 9.6343098 5.9072962
59.964066 9.8868103 5.7533407
60.100739 9.718811 5.778398
44.781994 10.289064 5.6694436
45.361881 10.140828 5.7103434
46.004288 10.059649 5.8457084
51.582596 10.27726 5.980051
59.747017 10.283224 5.7432523
44.294315 10.726684 5.6690688
44.587048 10.687976 5.6120143
51.774933 10.569792 5.9567661
59.548512 10.692413 5.7518415
44.344193 11.346209 5.6202302
44.632374 11.221447 5.7333164
45.311222 11.34792 5.8094563
45.590405 11.166343 5.8528147
47.208176 11.261017 5.7214069
59.682919 11.250208 5.8070569
60.213409 11.259753 5.972621
44.328308 11.775133 5.8350592
44.742111 11.600487 5.8033404
45.110077 11.94169 5.8250723
47.23288 11.582618 5.7667537
47.755524 11.878548 5.5892715
51.665932 11.870358 5.5717106
59.285122 11.890377 5.8344822
59.628803 11.693092 5.8750472
45.207199 12.292041 5.882009
43.955795 12.728596 5.6695247
45.332684 12.6901 5.9507976
48.41243 12.536563 5.8264098
57.595459 12.735169 5.5487413
50.631275 13.428331 5.9672689
52.072533 13.394003 5.6379824
57.753136 13.332466 5.6905618
58.664101 13.255291 5.8778505
44.653294 13.518476 5.5776105
45.173042 13.587337 5.6760302
45.709339 13.657067 5.77807
48.051422 13.924269 5.9699488
57.364784 13.773361 5.6432338
57.880001 13.740517 5.778326
57.111015 14.142828 5.6773496
44.880238 14.718194 5.7973838
45.694035 14.688046 5.7422013
48.135361 14.643024 5.6680188
58.776501 14.881585 5.5718637
59.207733 14.643826 5.6222281
44.340019 15.135035 5.7744956
45.321152 15.33988 5.6227674
45.749683 15.1592 5.6358886
58.400017 15.086916 5.5289903
44.881413 15.675623 5.6034207
45.136703 15.505202 5.6121969
46.003777 15.61138 5.5045829
43.650005 16.04113 5.8121214
44.129524 16.033131 5.8852358
44.714005 16.287403 5.6738625
43.479626 16.689711 5.5599594
43.827625 16.686232 5.619276
44.297516 16.629496 5.659986
49.978683 16.920967 5.5746813
51.394455 16.995152 5.5537653
51.90403 16.687946 5.7317715
49.686344 17.263195 5.5733895
52.231754 17.044941 5.705678
48.974648 17.698483 5.8250856
49.347336 17.725389 5.893682
48.947838 18.11941 5.9059896
7.7537293 18.816351 5.5324059
12.387728 18.895388 5.6118917
12.793187 18.748625 5.537477
44.960098 18.738264 5.8844881
49.880783 18.760805 5.6197944
6.0274386 19.443619 5.8505425
6.5863929 19.23885 5.7466507
7.1242061 19.043299 5.647471
11.241972 19.320944 5.8279343
11.576673 19.195009 5.7639685
12.849181 19.394512 5.5003052
13.776398 19.431736 5.5039611
15.875323 19.492496 5.9564023
16.144562 19.399071 5.9091225
16.714529 19.241821 5.8201432
43.497051 19.329096 5.6826324
43.827534 19.254866 5.7673993
44.105255 19.27289 5.8358822
44.710014 19.141958 5.8086429
47.942299 19.137779 5.5855246
4.4943666 19.935747 5.7144852
4.991374 19.71917 5.6002469
5.2280936 19.616398 5.5460315
6.4810982 19.606436 5.5331144
6.7782617 19.7047 5.5835099
7.3113804 19.869402 5.6647544
7.7115774 19.915783 5.5675259
8.2938967 19.766529 5.6498518
8.8621922 19.666681 5.5477109
10.431252 19.629868 5.9849324
10.526034 19.593403 5.966392
11.680616 19.817856 5.6846271
12.219851 19.778543 5.63832
12.648266 19.805632 5.5598874
13.000256 19.945192 5.586503
15.895736 19.769955 5.6558747
16.316242 19.61236 5.5890598
16.768894 19.893608 5.7022538
17.173637 19.902157 5.6790504
43.209702 19.778202 5.6034799
43.751579 19.828217 5.6841717
44.322746 19.838543 5.7605205
44.796299 19.850546 5.8317618
45.014458 19.972963 5.7400465
46.268139 19.826654 5.9800167
7.2044559 20.449701 5.9598098
7.8078499 20.077335 5.7695117
8.200861 20.143322 5.7282119
8.7104998 20.297508 5.7553797
9.0584087 20.436916 5.8241057
10.835948 20.379166 5.9585791
11.312001 20.202501 5.8453231
11.800671 20.038763 5.7188458
12.100068 20.082485 5.8471603
12.607378 20.097454 5.7876639
13.122249 20.210443 5.7542491
13.674229 20.287996 5.7431941
14.73173 20.331379 5.9674921
15.360195 20.043161 5.8158426
16.349472 20.131052 5.8441024
16.850386 20.409054 5.6769919
17.224369 20.092422 5.7053885
44.751717 20.046938 5.7252145
45.294292 20.445265 5.5806684
10.830434 20.983082 5.5411434
14.70035 20.62431 5.9221773
16.858139 20.843098 5.7661562
45.018185 20.961382 5.6883426
4.2149048 21.424564 5.6640282
4.7170811 21.224007 5.5718336
9.7759628 21.342379 5.7040615
10.346224 21.144926 5.6143975
16.867069 21.324551 5.9236865
16.774807 21.595139 5.769032
17.184172 21.623819 5.8595495
37.329742 22.154655 5.5152988
37.726006 22.204964 5.5589056
38.74984 22.34116 5.6763859
28.824783 22.516804 5.6954556
29.222406 22.531487 5.7115078
29.765606 22.554939 5.7360611
30.082956 22.57081 5.75208
30.793253 22.611845 5.7922053
31.345757 22.648548 5.8271217
31.841385 22.685368 5.8614607
32.31308 22.723307 5.8963742
32.786606 22.764664 5.9339676
33.198647 22.802906 5.9684229
40.2677 22.557552 5.8617582
30.28723 23.465202 5.5626092
30.787195 23.437384 5.5346465
33.414101 23.347927 5.5072765
33.992847 23.397013 5.54247
34.169792 23.437754 5.5308099
34.905968 23.487225 5.6075945
35.208664 23.497049 5.5881429
35.630695 23.489759 5.5378075
37.343239 23.487507 5.5162086
38.46748 23.42341 5.5069666
38.744675 23.44619 5.5232363
39.01236 23.469572 5.5399857
40.790443 23.47702 5.513648
41.962944 23.473602 5.5763655
28.960779 23.601006 5.6684465
29.262247 23.997784 5.9212065
29.712618 23.654783 5.6362591
30.146362 23.666153 5.6599712
30.761312 23.73118 5.7001228
31.221811 23.704908 5.673676
31.78726 23.818581 5.7694006
32.275482 23.835707 5.7692361
32.571957 23.69628 5.687294
33.222572 23.606354 5.6180992
33.930283 23.812416 5.8170366
34.237095 23.777632 5.7499647
34.771255 23.78813 5.7669759
35.260094 23.772003 5.7388172
35.704128 23.760275 5.7250175
36.33073 23.641354 5.6571679
36.789883 23.646519 5.6476951
37.104622 23.647308 5.6791782
37.793812 23.917009 5.8646712
38.274681 23.93574 5.8807917
38.759113 23.877775 5.8192902
39.288498 23.683607 5.6814561
39.753922 23.592396 5.619071
40.160206 23.596085 5.6135163
40.716816 23.629339 5.6494493
41.268055 23.718674 5.7201996
41.767235 23.695473 5.6561842
42.103382 23.832592 5.8031969
30.444717 24.027916 5.5842957
30.59239 24.012964 5.9300895
31.899641 24.348833 5.8209095
32.738056 24.007828 5.7672267
33.22945 24.081184 5.9424005
33.711506 24.135315 5.9890881
34.278145 24.030077 5.9309959
37.835632 24.077688 5.9715009
38.059349 24.028275 5.9338899
38.716011 24.05312 5.9557486
39.161068 24.190529 5.9917083
40.85965 24.132851 5.9890404
41.278698 24.095495 5.9598846
41.69397 24.062382 5.9339156
42.234131 24.114815 5.9285502
28.178808 24.72146 5.952693
28.714098 24.701372 5.9925485
32.948265 24.588232 5.997417
59.366173 25.358763 5.7218461
59.7467 25.321257 5.6702161
60.487637 25.250296 5.5725169
60.691952 25.262745 5.583209
61.303955 25.246199 5.5294952
64.496872 25.481211 5.8014383
64.701004 25.468082 5.7806783
65.210503 25.436686 5.730618
65.68293 25.409693 5.6869025
66.799255 25.353706 5.5935268
67.375916 25.32933 5.5510883
67.705429 25.316891 5.5287285
68.129601 25.302275 5.5017219
80.362503 25.293823 5.6483083
80.651062 25.377981 5.6895037
81.640137 25.395475 5.636188
85.806465 25.132874 5.5303588
86.353706 25.326216 5.6257563
86.766731 25.4743 5.6988645
91.291519 25.189259 5.523397
28.82103 25.931986 5.5571475
29.60638 25.730118 5.7913189
63.7906 25.529594 5.8770204
64.182587 25.502184 5.8343592
81.721542 25.707882 5.851388
82.257019 25.751625 5.8423042
82.84037 25.838526 5.854845
87.798172 25.851929 5.8854365
28.57596 26.375902 5.8730392
29.24234 26.081387 5.8162766
41.966946 26.423695 5.9557028
42.160946 26.424515 5.9501681
59.443798 26.098103 5.5045257
59.518929 26.421934 5.5757389
79.780907 26.201063 5.6503863
28.940453 26.739828 5.6010671
29.206173 26.719433 5.6095958
41.731956 26.947571 5.613699
42.203999 26.808617 5.9132171
41.840298 27.014473 5.5612297
42.086311 27.046656 5.609508
-8.5571079 28.153255 5.7733555
-8.17202 28.148674 5.7330127
2.2421892 28.482946 5.5827079
2.6773522 28.236231 5.5555549
4.6117673 28.100233 5.6017871
5.0267987 28.366024 5.5998116
3.3309603 28.729525 5.6078467
3.6569436 28.686468 5.6474571
4.3791285 28.896114 5.7493038
1.9594212 29.30747 5.7225981
4.0558152 29.086248 5.777163
53.349762 31.950077 5.6364689
53.700291 32.003345 5.6423063
4.1051507 -28.763943 6.2785563
4.0896025 -26.625576 6.1420655
22.567577 -26.26973 6.1067872
3.9982665 -25.636658 6.2019272
23.809914 -25.099062 6.3252754
3.9308167 -24.609442 6.3342767
75.807579 -24.884247 6.3011909
3.8762069 -24.248543 6.3529239
23.012196 -24.466738 6.3416748
23.827961 -24.055847 6.1027699
3.8259552 -23.56809 6.0939226
24.01392 -23.500765 6.0159302
3.7286236 -23.382757 6.2814064
23.093109 -23.493382 6.0845518
24.236391 -23.012388 6.4900446
3.3307774 -22.636017 6.0280843
3.6076691 -22.673128 6.0699787
24.430702 -22.599079 6.4211731
24.540045 -22.507374 6.3594623
74.782448 -22.583836 6.1441894
2.9016469 -22.319168 6.1665516
3.1519632 -22.393253 6.2246728
24.728098 -22.232399 6.2989101
74.427773 -22.045147 6.008462
74.596535 -22.252581 6.1421561
-19.216248 -21.796461 6.4208446
-18.773233 -21.821392 6.3701372
-18.320345 -21.826691 6.3046741
-17.862047 -21.827328 6.2524738
-17.322451 -21.830048 6.1371236
-16.773603 -21.829514 6.1094341
-16.160559 -21.831011 6.0235353
-15.011337 -21.835541 6.4642019
-14.773396 -21.833981 6.4638863
-14.220894 -21.835533 6.3757091
-13.726621 -21.836336 6.3089757
-13.256686 -21.836855 6.2487969
-12.755015 -21.837301 6.1862044
-8.6381531 -21.769321 6.3056064
-8.1588449 -21.719919 6.3034406
-7.6166115 -21.768803 6.1691837
-7.2984052 -21.719559 6.1869149
-6.7437005 -21.695328 6.1411219
-6.251492 -21.672091 6.1034799
-5.2509489 -21.696049 6.2417769
-4.8859816 -21.769192 6.4196334
-3.6806943 -21.719109 6.3359857
-3.2772481 -21.689363 6.3135276
-2.742975 -21.704428 6.2388659
-2.2193305 -21.714384 6.1744637
-1.8191887 -21.760872 6.1001549
-1.2231879 -21.67746 6.0840731
-0.73534608 -21.640285 6.0491343
-0.20420302 -21.611757 6.0075235
1.1872482 -21.734549 6.4687414
1.8400717 -21.812307 6.4200025
2.2765548 -21.785284 6.2414145
2.8171244 -21.881901 6.0668859
25.176907 -21.788609 6.1749959
25.533813 -21.511003 6.1158881
38.755764 -21.830839 6.0358925
39.172043 -21.832464 6.1007614
39.673241 -21.834455 6.1805091
40.070175 -21.83604 6.245019
73.838478 -21.569311 6.1011152
74.182434 -21.840605 6.1843376
-0.73034 -21.324757 6.3740225
-0.13757738 -21.344585 6.3025694
0.25039715 -21.375313 6.260375
0.86089939 -21.433138 6.1978278
1.3464956 -21.486778 6.1511288
25.786737 -21.342304 6.1680937
26.280497 -21.146938 6.2456069
26.805771 -21.14266 6.2085629
27.195759 -21.137074 6.2352729
27.661732 -21.157806 6.2745447
28.264267 -21.202269 6.1117387
28.699696 -21.272318 6.1572313
29.2547 -21.329979 6.2120948
29.641047 -21.160166 6.1654644
30.262037 -21.151777 6.1838746
30.678638 -21.151226 6.2244229
31.264639 -21.146984 6.272965
31.772879 -21.166061 6.3672776
32.155663 -21.157452 6.3846388
33.663399 -21.180403 6.0030694
34.03437 -21.180199 6.0407639
35.19836 -21.17758 6.1653695
35.814926 -21.177486 6.2354774
36.67952 -21.177355 6.3383851
37.300865 -21.177265 6.4152203
39.397022 -21.169868 6.0194573
39.79179 -21.170586 6.0689793
41.24604 -21.114805 6.0172691
41.885426 -21.114737 6.0671654
42.313595 -21.186436 6.0717092
42.795464 -21.162477 6.1305532
43.28772 -21.114565 6.1912036
43.802517 -21.183586 6.2359653
44.300198 -21.151011 6.2940922
44.738171 -21.190954 6.3492723
45.116936 -21.171028 6.3937893
45.653934 -21.171062 6.4600916
46.113258 -21.111143 6.4966073
47.260994 -21.074844 6.1449037
47.744499 -21.1124 6.1457419
48.217163 -21.137634 6.1942086
48.784531 -21.078901 6.2712607
49.158585 -21.05961 6.3264289
49.772919 -21.118118 6.3492503
50.597599 -21.117998 6.4618597
52.303261 -21.118835 6.0348749
52.838875 -21.059986 6.1331511
53.333572 -21.001703 6.2215571
54.117439 -21.002783 6.320344
54.705315 -21.003584 6.3970771
55.331448 -21.004423 6.4809213
56.961555 -21.005665 6.0387936
57.014301 -21.005613 6.0456438
73.25576 -21.148275 6.2964821
73.696983 -21.405746 6.4313722
74.191582 -21.272287 6.0512972
26.378168 -20.916464 6.4330621
26.701498 -20.959883 6.2855496
27.215765 -20.950609 6.2164664
27.646751 -20.95191 6.1868834
28.299006 -20.919926 6.1657991
28.641903 -20.903551 6.1169634
29.247772 -20.884771 6.0287361
29.87434 -20.955452 6.3597212
30.233353 -20.894268 6.2262778
30.757341 -20.931652 6.3773155
31.246759 -20.884295 6.3670325
31.7052 -20.894032 6.3496614
32.200901 -20.926023 6.2854729
32.813396 -20.925373 6.2245002
33.311653 -20.894289 6.1321616
33.715946 -20.927494 6.1125288
34.264824 -20.919901 6.0865159
34.649273 -20.9116 6.0402102
35.154583 -20.838741 6.1863546
35.817261 -20.903959 6.4811883
36.18932 -20.889143 6.451231
36.798752 -20.866755 6.4158506
37.221718 -20.876532 6.3046026
37.790249 -20.859974 6.2446527
38.255016 -20.858191 6.2575459
38.776188 -20.87554 6.2392011
39.296345 -20.857378 6.2055979
39.799194 -20.846869 6.2113237
40.285362 -20.878134 6.1094704
40.753082 -20.865278 6.0647473
41.172756 -20.904272 6.0850983
41.70491 -20.904327 6.0631676
42.249405 -20.904371 6.0440087
42.71059 -20.836355 6.1890049
43.214344 -20.891897 6.0830913
43.758362 -20.85675 6.0828266
44.198971 -20.901413 6.0030265
44.702648 -20.765713 6.1417737
45.365677 -20.878853 6.0351572
45.728695 -20.901516 6.0251441
46.268925 -20.888891 6.0578327
46.760445 -20.82992 6.0408564
47.229424 -20.92487 6.036087
47.765644 -20.822773 6.2946324
48.386063 -20.805063 6.3515625
48.721581 -20.828499 6.2879934
49.281326 -20.842243 6.2853994
49.791519 -20.843346 6.2717853
50.229568 -20.834915 6.2381706
50.718754 -20.782633 6.2928867
51.298031 -20.725512 6.296505
51.754723 -20.83894 6.1246905
